0.938618 0.330457 -0.722976
0.902308 0.317655 -0.707839
0.896452 0.315576 -0.716160
0.890529 0.313473 -0.724426
0.869671 0.306114 -0.720324
0.848950 0.298803 -0.715892
0.828368 0.291543 -0.711132
0.822488 0.289457 -0.718768
0.809319 0.284807 -0.719922
0.796194 0.280172 -0.720887
0.790235 0.278059 -0.728225
0.784215 0.275926 -0.735508
0.785145 0.276237 -0.749426
0.758086 0.266702 -0.736393
0.745101 0.262119 -0.736558
0.725328 0.255149 -0.729656
0.719299 0.253014 -0.736338
0.699757 0.246126 -0.728946
0.687064 0.241648 -0.728320
0.687658 0.241843 -0.741780
0.661870 0.232761 -0.726533
0.655868 0.230637 -0.732628
0.278665 0.097701 -0.965868
16.378900 5.704070 1.517380
16.127300 5.616110 1.344010
16.034200 5.583370 1.187260
15.977500 5.563300 1.034770
15.910100 5.539500 0.882908
15.841400 5.515250 0.732370
15.818600 5.507000 0.584917
15.728500 5.475310 0.436109
15.656100 5.449770 0.289362
15.658000 5.450110 0.144687
15.677500 5.456610 0.000001
15.422100 5.367370 -0.142503
15.184300 5.284320 -0.280634
15.106000 5.256750 -0.418830
15.036000 5.232090 -0.555948
15.012100 5.223450 -0.693984
14.666300 5.102850 -0.813823
13.273400 4.617930 -0.859563
13.030300 4.533110 -0.964731
11.816700 4.110670 -0.984661
10.698000 3.721280 -0.990960
9.758740 3.394360 -0.994878
8.745140 3.041630 -0.973159
7.873480 2.738300 -0.949774
7.115430 2.474510 -0.924988
6.555080 2.279510 -0.913683
6.032900 2.097800 -0.897666
5.614280 1.952120 -0.888334
5.224290 1.816410 -0.876033
4.853580 1.687420 -0.859898
4.585890 1.594260 -0.856085
4.327920 1.504490 -0.849217
4.088990 1.421350 -0.841467
3.915310 1.360900 -0.843326
3.714210 1.290920 -0.835805
3.476650 1.208290 -0.815977
3.350170 1.164260 -0.818822
3.205540 1.113930 -0.814724
3.061240 1.063720 -0.808019
2.935600 1.020010 -0.803720
2.792010 0.970059 -0.791986
2.667060 0.926592 -0.783008
2.587880 0.899030 -0.785566
2.517920 0.874675 -0.789563
2.439070 0.847232 -0.789403
2.369420 0.822990 -0.790856
2.290950 0.795689 -0.787993
2.221670 0.771582 -0.786915
2.143660 0.744445 -0.781363
2.083720 0.723587 -0.781108
2.006200 0.696627 -0.772965
1.955520 0.678989 -0.773958
1.896160 0.658340 -0.770491
1.837010 0.637766 -0.765987
1.786840 0.620313 -0.764197
1.754300 0.608980 -0.769194
1.721820 0.597669 -0.773647
1.672070 0.580365 -0.769586
1.631150 0.566129 -0.768732
1.581780 0.548961 -0.763035
1.549750 0.537814 -0.764939
1.509290 0.523741 -0.762005
1.468990 0.509729 -0.758382
1.445780 0.501646 -0.762998
1.405770 0.487736 -0.758164
1.365960 0.473894 -0.752650
1.326340 0.460123 -0.746460
1.303540 0.452186 -0.749139
1.280800 0.444270 -0.751455
1.241670 0.430672 -0.743559
1.210950 0.419994 -0.740000
1.180390 0.409370 -0.735931
1.166190 0.404420 -0.741655
1.135870 0.393883 -0.736723
1.113730 0.386184 -0.736588
1.091690 0.378518 -0.736100
1.061810 0.368137 -0.729816
1.047880 0.363287 -0.734076
1.033960 0.358440 -0.738135
1.020060 0.353599 -0.741992
0.975208 0.338032 -0.722706
0.953833 0.330604 -0.720072
0.932578 0.323217 -0.717098
0.896254 0.310610 -0.701891
0.897984 0.311191 -0.716160
0.877058 0.303921 -0.712251
0.863711 0.299279 -0.714167
0.857795 0.297211 -0.722117
0.829784 0.287489 -0.711132
0.823894 0.285432 -0.718768
0.810702 0.280845 -0.719922
0.804740 0.278763 -0.727382
0.798717 0.276660 -0.734786
0.785555 0.272086 -0.735508
0.772443 0.267528 -0.736044
0.759382 0.262989 -0.736393
0.739464 0.256076 -0.729738
0.726569 0.251596 -0.729656
0.720529 0.249489 -0.736338
0.694214 0.240364 -0.721936
0.688239 0.238281 -0.728320
0.675587 0.233887 -0.727515
0.676131 0.234061 -0.740920
0.656990 0.227422 -0.732628
16.315400 5.552020 1.507800
16.166900 5.501140 1.344010
16.073600 5.469050 1.187260
15.969500 5.433290 1.031720
15.883000 5.403510 0.879245
15.851900 5.392600 0.731062
15.838500 5.387700 0.584219
15.823900 5.382390 0.437679
15.722900 5.347690 0.289885
15.696400 5.338340 0.144687
15.839100 5.386540 0.000001
15.450500 5.254030 -0.142416
15.325800 5.211280 -0.282554
15.304000 5.203560 -0.423280
15.120300 5.140750 -0.557693
14.831400 5.042230 -0.683951
14.768600 5.020540 -0.817487
13.561200 4.609790 -0.876046
13.052900 4.436740 -0.964034
11.893000 4.042220 -0.988584
10.696000 3.635160 -0.988346
9.811010 3.334170 -0.997754
8.757240 2.975870 -0.972114
7.930480 2.694750 -0.954303
7.142330 2.426780 -0.926207
6.524270 2.216640 -0.907157
5.963360 2.025940 -0.885141
5.656190 1.921470 -0.892769
5.237150 1.779000 -0.876033
4.865530 1.652660 -0.859898
4.597180 1.561410 -0.856085
4.329270 1.470320 -0.847395
4.108350 1.395200 -0.843376
3.924950 1.332840 -0.843326
3.723360 1.264300 -0.835805
3.522200 1.195920 -0.824635
3.349190 1.137100 -0.816572
3.213440 1.090940 -0.814724
3.068780 1.041770 -0.808019
2.933660 0.995833 -0.801216
2.789750 0.946921 -0.789398
2.682760 0.910549 -0.785681
2.603360 0.883544 -0.788323
2.524130 0.856599 -0.789563
2.454130 0.832792 -0.792327
2.375260 0.805975 -0.790856
2.305600 0.782290 -0.791083
2.245110 0.761716 -0.793262
2.148950 0.729043 -0.781363
2.079930 0.705585 -0.777770
2.020050 0.685226 -0.776386
1.960350 0.664932 -0.773958
1.900840 0.644708 -0.770491
1.841550 0.624557 -0.765987
1.800040 0.610440 -0.767943
1.758630 0.596361 -0.769194
1.726070 0.585281 -0.773647
1.667510 0.565389 -0.765598
1.626520 0.551457 -0.764665
1.594300 0.540497 -0.767182
1.544990 0.523748 -0.760713
1.513010 0.512874 -0.762005
1.472620 0.499149 -0.758382
1.440880 0.488359 -0.758536
1.409250 0.477608 -0.758164
1.377730 0.466899 -0.757268
1.346340 0.456232 -0.755849
1.298440 0.439970 -0.744368
1.283960 0.435037 -0.751455
1.252980 0.424513 -0.748484
1.213950 0.411261 -0.740000
1.183310 0.400857 -0.735931
1.160950 0.393258 -0.736504
1.138680 0.385688 -0.736723
1.124520 0.380868 -0.741887
1.094390 0.370639 -0.736100
1.056490 0.357783 -0.724370
1.050470 0.355721 -0.734076
1.028670 0.348315 -0.732543
0.999163 0.338303 -0.725000
0.985380 0.333615 -0.728442
0.956194 0.323713 -0.720072
0.927223 0.313885 -0.711220
0.906086 0.306710 -0.707839
0.892642 0.302140 -0.710142
0.879229 0.297581 -0.712251
0.865850 0.293034 -0.714167
0.859919 0.291008 -0.722117
0.846562 0.286470 -0.723718
0.825934 0.279472 -0.718768
0.812711 0.274979 -0.719922
0.813937 0.275377 -0.733876
0.800696 0.270880 -0.734786
0.787502 0.266399 -0.735508
0.781397 0.264317 -0.742735
0.761265 0.257491 -0.736393
0.741297 0.250721 -0.729738
0.735241 0.248657 -0.736539
0.722315 0.244269 -0.736338
0.702692 0.237618 -0.728946
0.689945 0.233293 -0.728320
0.677263 0.228990 -0.727515
0.664647 0.224710 -0.726533
0.658619 0.222658 -0.732628
16.310600 5.409920 1.503440
16.227900 5.382150 1.345570
16.134400 5.350780 1.188650
15.992100 5.303260 1.030500
15.933800 5.283580 0.879768
15.902600 5.272910 0.731498
15.870300 5.261830 0.583870
15.950500 5.288090 0.440035
15.820800 5.244740 0.290933
15.756200 5.223010 0.144861
15.624100 5.178850 0.000001
15.433700 5.115430 -0.141893
15.356100 5.089390 -0.282379
15.334300 5.081830 -0.423019
15.112100 5.007870 -0.555948
14.623400 4.845600 -0.672610
14.645800 4.852710 -0.808590
14.392300 4.768400 -0.927326
13.266800 4.395210 -0.977287
11.914400 3.946940 -0.987799
10.799500 3.577340 -0.995318
9.845960 3.261280 -0.998712
8.770560 2.904890 -0.971069
7.951100 2.633300 -0.954303
7.198580 2.383920 -0.931081
6.635340 2.197260 -0.920209
6.035260 1.998410 -0.893491
5.661500 1.874530 -0.891290
5.250760 1.738420 -0.876033
4.915630 1.627360 -0.866500
4.609120 1.525790 -0.856085
4.349850 1.439870 -0.849217
4.091060 1.354120 -0.837651
3.935150 1.302420 -0.843326
3.751600 1.241590 -0.839963
3.531340 1.168620 -0.824635
3.348640 1.108090 -0.814323
3.221780 1.066040 -0.814724
3.076750 1.017990 -0.808019
2.950470 0.976143 -0.803720
2.796990 0.925305 -0.789398
2.698880 0.892788 -0.788353
2.610120 0.863372 -0.788323
2.530680 0.837041 -0.789563
2.460510 0.813776 -0.792327
2.381420 0.787570 -0.790856
2.311590 0.764425 -0.791083
2.250940 0.744320 -0.793262
2.163500 0.715360 -0.784619
2.085330 0.689469 -0.777770
2.034210 0.672523 -0.779806
1.965430 0.649742 -0.773958
1.905770 0.629979 -0.770491
1.846320 0.610288 -0.765987
1.804710 0.596492 -0.767943
1.754420 0.579835 -0.765367
1.730550 0.571907 -0.773647
1.671840 0.552468 -0.765598
1.630740 0.538854 -0.764665
1.589790 0.525289 -0.763035
1.549000 0.511776 -0.760713
1.516940 0.501150 -0.762005
1.467900 0.484920 -0.753998
1.436120 0.474388 -0.754074
1.404440 0.463894 -0.753624
1.364460 0.450660 -0.748033
1.341450 0.443031 -0.751154
1.301800 0.429909 -0.744368
1.270680 0.419603 -0.741759
1.247960 0.412075 -0.743559
1.208870 0.399140 -0.735000
1.186380 0.391688 -0.735931
1.163960 0.384262 -0.736504
1.133530 0.374192 -0.731498
1.127430 0.372155 -0.741887
1.105230 0.364803 -0.741473
1.059230 0.349597 -0.724370
1.045280 0.344968 -0.728557
1.039210 0.342943 -0.738135
1.001750 0.330561 -0.725000
0.980153 0.323413 -0.722706
0.958670 0.316304 -0.720072
0.944990 0.311770 -0.722976
0.908433 0.299689 -0.707839
0.902538 0.297725 -0.716160
0.896574 0.295739 -0.724426
0.875575 0.288793 -0.720324
0.869578 0.286796 -0.728342
0.841373 0.277476 -0.717425
0.835400 0.275488 -0.725129
0.822089 0.271081 -0.726350
0.816043 0.269070 -0.733876
0.795600 0.262312 -0.728225
0.782427 0.257952 -0.728882
0.776361 0.255936 -0.736044
0.763234 0.251592 -0.736393
0.743215 0.244977 -0.729738
0.737143 0.242960 -0.736539
0.724184 0.238673 -0.736338
0.711284 0.234406 -0.735955
0.691730 0.227947 -0.728320
0.692329 0.228129 -0.741780
0.672963 0.221734 -0.733727
0.660323 0.217555 -0.732628
0.647752 0.213399 -0.731354
16.302900 5.305470 1.499950
16.343300 5.318260 1.352640
16.278100 5.296700 1.197020
16.031300 5.216030 1.031110
15.953900 5.190500 0.879245
15.932100 5.183100 0.731498
15.880700 5.166010 0.583171
15.875500 5.163990 0.437156
15.831100 5.149200 0.290583
15.737900 5.118560 0.144425
15.653000 5.090610 0.000001
15.452800 5.025180 -0.141805
15.394100 5.005750 -0.282554
15.334200 4.985950 -0.422233
15.111700 4.913250 -0.554901
14.669500 4.769190 -0.673482
14.597000 4.745300 -0.804403
14.276600 4.640830 -0.918169
13.822600 4.492970 -1.016350
11.898600 3.867320 -0.984661
10.828900 3.519430 -0.996189
9.845280 3.199520 -0.996795
8.862480 2.879940 -0.979431
7.928030 2.576110 -0.949774
7.211920 2.343270 -0.931081
6.657070 2.162840 -0.921515
6.093540 1.979630 -0.900450
5.681400 1.845610 -0.892769
5.269880 1.711820 -0.877597
4.915350 1.596550 -0.864849
4.617660 1.499760 -0.856085
4.348560 1.412260 -0.847395
4.126650 1.340110 -0.843376
3.942430 1.280200 -0.843326
3.758550 1.220410 -0.839963
3.500740 1.136620 -0.815977
3.354840 1.089180 -0.814323
3.218500 1.044840 -0.812390
3.082450 1.000610 -0.808019
2.946720 0.956490 -0.801216
2.820540 0.915472 -0.794574
2.703870 0.877545 -0.788353
2.624090 0.851598 -0.791079
2.544490 0.825708 -0.792403
2.465060 0.799880 -0.792327
2.385830 0.774120 -0.790856
2.324910 0.754305 -0.794174
2.237060 0.725754 -0.786915
2.167500 0.703141 -0.784619
2.089190 0.677691 -0.777770
2.029030 0.658135 -0.776386
1.969070 0.638642 -0.773958
1.909300 0.619216 -0.770491
1.858590 0.602730 -0.769652
1.808040 0.586299 -0.767943
1.757670 0.569927 -0.765367
1.724990 0.559294 -0.769740
1.674930 0.543026 -0.765598
1.642450 0.532461 -0.768732
1.601390 0.519116 -0.767182
1.560480 0.505823 -0.764939
1.519740 0.492583 -0.762005
1.479170 0.479400 -0.758382
1.438770 0.466277 -0.754074
1.398560 0.453216 -0.749084
1.358540 0.440219 -0.743415
1.343930 0.435455 -0.751154
1.304210 0.422557 -0.744368
1.273030 0.412427 -0.741759
1.250270 0.405027 -0.743559
1.219340 0.394981 -0.740000
1.188570 0.384987 -0.735931
1.166110 0.377689 -0.736504
1.135620 0.367790 -0.731498
1.129510 0.365787 -0.741887
1.107270 0.358561 -0.741473
1.061190 0.343614 -0.724370
1.047210 0.339065 -0.728557
1.025350 0.331966 -0.726951
1.003600 0.324903 -0.725000
0.981962 0.317877 -0.722706
0.960440 0.310889 -0.720072
0.931340 0.301450 -0.711220
0.917757 0.297034 -0.713787
0.896605 0.290169 -0.710142
0.898229 0.290675 -0.724426
0.884688 0.286274 -0.726480
0.886074 0.286704 -0.740792
0.857713 0.277509 -0.730012
0.829600 0.268395 -0.718768
0.823606 0.266438 -0.726350
0.803079 0.259781 -0.720887
0.804249 0.260142 -0.734786
0.783870 0.253533 -0.728882
0.777793 0.251551 -0.736044
0.757627 0.245013 -0.729637
0.744585 0.240779 -0.729738
0.738503 0.238796 -0.736539
0.725519 0.234583 -0.736338
0.705808 0.228195 -0.728946
0.699733 0.226215 -0.735391
0.686935 0.222063 -0.734648
0.680813 0.220070 -0.740920
0.661540 0.213825 -0.732628
0.655435 0.211838 -0.738667
16.545200 5.243760 1.365970
16.356400 5.183560 1.199810
16.070900 5.092740 1.031110
16.002800 5.070820 0.879768
16.057200 5.087730 0.735424
15.977100 5.062000 0.585266
15.962400 5.057000 0.438465
15.803500 5.006320 0.289362
15.767200 4.994510 0.144338
15.672600 4.964200 0.000001
15.481400 4.903330 -0.141718
15.422600 4.884360 -0.282379
15.343500 4.858980 -0.421448
15.253700 4.830240 -0.558740
15.191500 4.810200 -0.695728
14.614000 4.627030 -0.803356
14.083400 4.458760 -0.903517
13.771100 4.359590 -1.010070
12.051500 3.814950 -0.994861
10.865200 3.439170 -0.997061
9.888540 3.129830 -0.998712
8.846410 2.799800 -0.975250
7.985470 2.527150 -0.954303
7.191850 2.275840 -0.926207
6.701830 2.120640 -0.925430
6.136880 1.941740 -0.904625
5.714260 1.807900 -0.895725
5.292280 1.674280 -0.879161
4.946270 1.564710 -0.868150
4.638420 1.467230 -0.857822
4.368650 1.381800 -0.849217
4.136820 1.308380 -0.843376
3.970830 1.255800 -0.847313
3.777130 1.194460 -0.842042
3.490740 1.103820 -0.811648
3.381690 1.069270 -0.818822
3.235690 1.023040 -0.814724
3.090040 0.976919 -0.808019
2.953980 0.933841 -0.801216
2.827490 0.893793 -0.794574
2.719720 0.859668 -0.791025
2.630550 0.831430 -0.791079
2.550750 0.806152 -0.792403
2.471120 0.780935 -0.792327
2.391700 0.755784 -0.790856
2.321560 0.733572 -0.791083
2.242570 0.708562 -0.786915
2.172840 0.686484 -0.784619
2.103320 0.664476 -0.781108
2.034030 0.642543 -0.776386
1.973910 0.623510 -0.773958
1.905090 0.601732 -0.766907
1.854290 0.585646 -0.765987
1.803650 0.569614 -0.764197
1.770800 0.559203 -0.769194
1.729230 0.546039 -0.769740
1.679050 0.530156 -0.765598
1.646490 0.519841 -0.768732
1.596650 0.504072 -0.763035
1.564320 0.493833 -0.764939
1.523480 0.480906 -0.762005
1.482800 0.468035 -0.758382
1.450840 0.457916 -0.758536
1.402000 0.442471 -0.749084
1.370340 0.432451 -0.748033
1.330390 0.419816 -0.741765
1.307410 0.412537 -0.744368
1.276150 0.402647 -0.741759
1.253340 0.395422 -0.743559
1.222330 0.385614 -0.740000
1.191490 0.375857 -0.735931
1.168970 0.368731 -0.736504
1.138410 0.359066 -0.731498
1.124200 0.354560 -0.736588
1.101950 0.347518 -0.736100
1.071790 0.337985 -0.729816
1.049780 0.331021 -0.728557
1.027870 0.324090 -0.726951
1.006060 0.317194 -0.725000
0.984372 0.310335 -0.722706
0.955032 0.301065 -0.714265
0.933625 0.294297 -0.711220
0.912342 0.287569 -0.707839
0.906422 0.285683 -0.716160
0.892865 0.281392 -0.718338
0.886858 0.279480 -0.726480
0.888247 0.279899 -0.740792
0.859817 0.270922 -0.730012
0.838994 0.264343 -0.725129
0.825625 0.260113 -0.726350
0.819553 0.258183 -0.733876
0.806220 0.253966 -0.734786
0.778648 0.245264 -0.722256
0.772611 0.243346 -0.729352
0.759483 0.239195 -0.729637
0.746410 0.235062 -0.729738
0.740312 0.233126 -0.736539
0.727296 0.229012 -0.736338
0.714341 0.224917 -0.735955
0.701447 0.220843 -0.735391
0.688618 0.216789 -0.734648
0.682481 0.214842 -0.740920
0.663160 0.208746 -0.732628
0.650535 0.204758 -0.731354
16.714300 5.161590 1.530460
16.564600 5.115020 1.364400
16.470600 5.085650 1.205390
16.146300 4.985180 1.033550
16.049500 4.954940 0.880292
16.104000 4.971450 0.735860
16.042800 4.952220 0.586312
15.999400 4.938490 0.438465
15.859300 4.894900 0.289711
15.822900 4.883360 0.144512
15.699400 4.844910 0.000001
15.507800 4.785460 -0.141631
15.420100 4.758090 -0.281681
15.388600 4.748050 -0.421710
15.279600 4.714080 -0.558391
15.264900 4.709230 -0.697473
14.581100 4.497970 -0.799693
14.097000 4.348360 -0.902297
13.660100 4.213300 -0.999609
12.165200 3.751960 -1.001920
10.833200 3.340940 -0.991832
9.930480 3.062330 -1.000630
8.914430 2.748810 -0.980476
8.032460 2.476690 -0.957699
7.293880 2.248810 -0.937175
6.688940 2.062160 -0.921515
6.151100 1.896220 -0.904625
5.774760 1.780080 -0.903115
5.323420 1.640840 -0.882290
4.976580 1.533830 -0.871451
4.658580 1.435730 -0.859558
4.378760 1.349400 -0.849217
4.155780 1.280590 -0.845284
3.980030 1.226360 -0.847313
3.748480 1.154930 -0.833726
3.517490 1.083690 -0.815977
3.389510 1.044190 -0.818822
3.233890 0.996182 -0.812390
3.106460 0.956864 -0.810438
2.970070 0.914789 -0.803720
2.843260 0.875673 -0.797162
2.735220 0.842341 -0.793698
2.636640 0.811928 -0.791079
2.556650 0.787243 -0.792403
2.485980 0.765431 -0.795251
2.406350 0.740862 -0.793863
2.336020 0.719162 -0.794174
2.265880 0.697521 -0.793262
2.186890 0.673161 -0.787875
2.108180 0.648888 -0.781108
2.047710 0.630233 -0.779806
1.978470 0.608883 -0.773958
1.900570 0.584868 -0.763324
1.867460 0.574642 -0.769652
1.807810 0.556249 -0.764197
1.774890 0.546082 -0.769194
1.742020 0.535934 -0.773647
1.682920 0.517717 -0.765598
1.650290 0.507643 -0.768732
1.609030 0.494919 -0.767182
1.576590 0.484909 -0.769165
1.526990 0.469621 -0.762005
1.486220 0.457052 -0.758382
1.454190 0.447170 -0.758536
1.405230 0.432086 -0.749084
1.381980 0.424909 -0.752650
1.350340 0.415152 -0.751154
1.318830 0.405437 -0.749139
1.287460 0.395766 -0.746607
1.247910 0.383584 -0.738635
1.225150 0.376563 -0.740000
1.202470 0.369566 -0.741006
1.171670 0.360075 -0.736504
1.149190 0.353142 -0.736723
1.118680 0.343746 -0.731288
1.096420 0.336883 -0.730727
1.066240 0.327588 -0.724370
1.052200 0.323250 -0.728557
1.030230 0.316482 -0.726951
1.016260 0.312167 -0.730664
1.002300 0.307859 -0.734178
0.965014 0.296386 -0.720072
0.935775 0.287387 -0.711220
0.922127 0.283176 -0.713787
0.908509 0.278975 -0.716160
0.902505 0.277113 -0.724426
0.888899 0.272917 -0.726480
0.875329 0.268732 -0.728342
0.861795 0.264560 -0.730012
0.848301 0.260399 -0.731490
0.834848 0.256253 -0.732778
0.821439 0.252120 -0.733876
0.808075 0.248001 -0.734786
0.780439 0.239503 -0.722256
0.774388 0.237630 -0.729352
0.761230 0.233577 -0.729637
0.748126 0.229541 -0.729738
0.742014 0.227650 -0.736539
0.728969 0.223632 -0.736338
0.715983 0.219634 -0.735955
0.703060 0.215655 -0.735391
0.696902 0.213752 -0.741780
0.677408 0.207759 -0.733727
0.664684 0.203842 -0.732628
0.652030 0.199948 -0.731354
0.645907 0.198057 -0.737277
16.713400 5.062530 1.527840
16.601600 5.028320 1.365190
16.555200 5.013920 1.209580
16.220800 4.912320 1.036610
16.133400 4.885510 0.883432
16.159400 4.893040 0.737169
16.098000 4.874140 0.587359
16.035400 4.854860 0.438727
15.942900 4.826510 0.290758
15.877800 4.806480 0.144774
15.706200 4.754210 0.000001
15.523900 4.698690 -0.141543
15.464800 4.680480 -0.282030
15.423600 4.667720 -0.421971
15.285700 4.625660 -0.557693
15.290100 4.626670 -0.697473
14.318400 4.332350 -0.783992
14.063000 4.254780 -0.898634
13.883200 4.200080 -1.014260
12.175700 3.683280 -1.001140
10.879700 3.291000 -0.994446
9.937360 3.005740 -0.999671
8.948190 2.706360 -0.982567
8.045730 2.433250 -0.957699
7.334430 2.217980 -0.940831
6.737950 2.037460 -0.926736
6.227610 1.883010 -0.914367
5.774820 1.745990 -0.901637
5.351120 1.617770 -0.885419
5.003680 1.512630 -0.874752
4.694550 1.419080 -0.864768
4.385990 1.325720 -0.849217
4.172030 1.260960 -0.847192
3.977220 1.202000 -0.845320
3.764030 1.137490 -0.835805
3.588710 1.084430 -0.831128
3.385780 1.023040 -0.816572
3.239230 0.978692 -0.812390
3.111590 0.940063 -0.810438
2.974970 0.898726 -0.803720
2.857200 0.863089 -0.799751
2.748950 0.830334 -0.796370
2.650190 0.800448 -0.793835
2.551690 0.770644 -0.789563
2.471770 0.746457 -0.789403
2.410320 0.727848 -0.793863
2.339870 0.706528 -0.794174
2.269610 0.685266 -0.793262
2.190500 0.661334 -0.787875
2.120680 0.640210 -0.784446
2.060080 0.621874 -0.783226
1.981730 0.598182 -0.773958
1.912640 0.577287 -0.766907
1.861630 0.561854 -0.765987
1.819670 0.549151 -0.767943
1.768970 0.533814 -0.765367
1.736080 0.523853 -0.769740
1.685700 0.508615 -0.765598
1.653010 0.498718 -0.768732
1.611680 0.486217 -0.767182
1.570510 0.473765 -0.764939
1.529510 0.461363 -0.762005
1.488670 0.449014 -0.758382
1.448010 0.436721 -0.754074
1.407550 0.424487 -0.749084
1.384260 0.417435 -0.752650
1.361020 0.410398 -0.755849
1.321000 0.398305 -0.749139
1.297950 0.391328 -0.751455
1.258300 0.379347 -0.743559
1.218880 0.367437 -0.735000
1.196200 0.360576 -0.735931
1.173600 0.353739 -0.736504
1.151080 0.346927 -0.736723
1.128650 0.340143 -0.736588
1.106300 0.333387 -0.736100
1.076030 0.324241 -0.729816
1.045940 0.315154 -0.723037
1.039870 0.313302 -0.732543
1.017930 0.306671 -0.730664
0.996106 0.300076 -0.728442
0.966601 0.291167 -0.720072
0.937314 0.282326 -0.711220
0.923644 0.278189 -0.713787
0.910003 0.274062 -0.716160
0.903989 0.272232 -0.724426
0.890361 0.268110 -0.726480
0.876768 0.263998 -0.728342
0.863212 0.259899 -0.730012
0.849696 0.255812 -0.731490
0.828885 0.249529 -0.726350
0.822789 0.247677 -0.733876
0.802176 0.241456 -0.728225
0.781722 0.235283 -0.722256
0.782777 0.235584 -0.736044
0.762481 0.229460 -0.729637
0.749356 0.225495 -0.729738
0.743234 0.223637 -0.736539
0.730166 0.219690 -0.736338
0.723989 0.217817 -0.742964
0.704215 0.211853 -0.735391
0.691335 0.207964 -0.734648
0.685173 0.206096 -0.740920
0.665776 0.200248 -0.732628
0.659632 0.198386 -0.738667
0.330890 0.099202 -0.949090
16.846800 4.964040 1.536560
16.734800 4.930700 1.373040
16.659600 4.908200 1.214460
16.372400 4.823260 1.043930
16.198600 4.771720 0.885002
16.253400 4.787530 0.739786
16.115300 4.746510 0.586661
16.081300 4.736170 0.438988
15.969400 4.702880 0.290583
15.952100 4.697460 0.145123
15.751400 4.638020 0.000001
15.539800 4.575410 -0.141369
15.499800 4.563300 -0.282030
15.468100 4.553670 -0.422233
15.329900 4.512650 -0.558042
15.334300 4.513630 -0.697909
14.331600 4.218210 -0.782945
14.142700 4.162300 -0.901686
14.125100 4.156840 -1.029600
12.260700 3.607910 -1.005840
10.933000 3.216990 -0.997061
10.026700 2.950100 -1.006380
8.930260 2.627330 -0.978386
8.092510 2.380690 -0.961095
7.341480 2.159600 -0.939612
6.791220 1.997590 -0.931957
6.251180 1.838620 -0.915759
5.806850 1.707810 -0.904593
5.363210 1.577220 -0.885419
5.024440 1.477490 -0.876402
4.695710 1.380730 -0.863031
4.405330 1.295250 -0.851040
4.181460 1.229340 -0.847192
3.986200 1.171860 -0.845320
3.800690 1.117240 -0.842042
3.596810 1.057240 -0.831128
3.393420 0.997385 -0.816572
3.265200 0.959630 -0.817059
3.118610 0.916485 -0.810438
2.981680 0.876183 -0.803720
2.854380 0.838716 -0.797162
2.736670 0.804071 -0.791025
2.628500 0.772237 -0.785566
2.557450 0.751308 -0.789563
2.486520 0.730422 -0.792327
2.415760 0.709584 -0.793863
2.354280 0.691478 -0.797264
2.274740 0.668068 -0.793262
2.195440 0.644735 -0.787875
2.125460 0.624141 -0.784446
2.055710 0.603616 -0.779806
1.986200 0.583166 -0.773958
1.925910 0.565424 -0.770491
1.856910 0.545126 -0.762322
1.823770 0.535362 -0.767943
1.781820 0.523012 -0.769194
1.740000 0.510698 -0.769740
1.689500 0.495841 -0.765598
1.656730 0.486192 -0.768732
1.606590 0.471442 -0.763035
1.574060 0.461864 -0.764939
1.515630 0.444691 -0.753394
1.492030 0.437734 -0.758382
1.459870 0.428268 -0.758536
1.419270 0.416329 -0.753624
1.387380 0.406945 -0.752650
1.355610 0.397600 -0.751154
1.315540 0.385821 -0.744368
1.300880 0.381493 -0.751455
1.261130 0.369812 -0.743559
1.229940 0.360638 -0.740000
1.198890 0.351511 -0.735931
1.168020 0.342434 -0.731354
1.153670 0.338205 -0.736723
1.131190 0.331591 -0.736588
1.108800 0.325004 -0.736100
1.078450 0.316087 -0.729816
1.056300 0.309573 -0.728557
1.034250 0.303090 -0.726951
1.012310 0.296640 -0.725000
0.982627 0.287921 -0.716971
0.960965 0.281554 -0.714265
0.954952 0.279772 -0.722976
0.941152 0.275710 -0.725684
0.912051 0.267166 -0.716160
0.906024 0.265382 -0.724426
0.899927 0.263578 -0.732637
0.871231 0.255155 -0.722117
0.857697 0.251174 -0.723718
0.851608 0.249373 -0.731490
0.838102 0.245401 -0.732778
0.824640 0.241442 -0.733876
0.803981 0.235377 -0.728225
0.790668 0.231463 -0.728882
0.777406 0.227565 -0.729352
0.764196 0.223682 -0.729637
0.751041 0.219816 -0.729738
0.744905 0.218005 -0.736539
0.731808 0.214157 -0.736338
0.718772 0.210327 -0.735955
0.712585 0.208502 -0.742462
0.692889 0.202725 -0.734648
0.686713 0.200904 -0.740920
0.667272 0.195203 -0.732628
0.661114 0.193388 -0.738667
0.338198 0.098609 -0.967883
17.078000 4.892850 1.398140
16.743900 4.796810 1.217950
16.302600 4.670050 1.037220
16.272400 4.661070 0.887095
16.240900 4.651720 0.737605
16.160000 4.628260 0.587010
16.106800 4.612680 0.438727
15.985000 4.577480 0.290234
16.006100 4.583210 0.145298
15.929900 4.561070 0.000001
15.650600 4.480790 -0.142067
15.543100 4.449720 -0.282205
15.492200 4.434830 -0.421971
15.353600 4.394860 -0.557693
15.319700 4.384830 -0.695728
14.410800 4.124420 -0.785562
14.749200 4.220980 -0.938315
14.299700 4.092050 -1.040070
12.325700 3.526910 -1.008980
11.014300 3.151430 -1.002290
10.077200 2.883120 -1.009260
9.064430 2.593180 -0.990929
8.176980 2.339140 -0.969019
7.424250 2.123660 -0.948143
6.853650 1.960310 -0.938483
6.283820 1.797200 -0.918542
5.857510 1.675160 -0.910506
5.422350 1.550600 -0.893240
5.073300 1.450680 -0.883004
4.715380 1.348240 -0.864768
4.433810 1.267650 -0.854684
4.171660 1.192620 -0.843376
3.994860 1.141990 -0.845320
3.818350 1.091460 -0.844121
3.614010 1.032980 -0.833292
3.410160 0.974643 -0.818822
3.272290 0.935173 -0.817059
3.125380 0.893128 -0.810438
2.988150 0.853854 -0.803720
2.879150 0.822649 -0.802339
2.742600 0.783580 -0.791025
2.606480 0.744636 -0.777297
2.572210 0.734795 -0.792403
2.501110 0.714435 -0.795251
2.430160 0.694120 -0.796870
2.350240 0.671245 -0.794174
2.288780 0.653648 -0.796435
2.200200 0.628306 -0.787875
2.130070 0.608236 -0.784446
2.060170 0.588235 -0.779806
1.999510 0.570877 -0.777460
1.930080 0.551016 -0.770491
1.869870 0.533790 -0.765987
1.818810 0.519176 -0.764197
1.785680 0.509685 -0.769194
1.734910 0.495159 -0.765833
1.693150 0.483207 -0.765598
1.660320 0.473804 -0.768732
1.610060 0.459430 -0.763035
1.577460 0.450096 -0.764939
1.527590 0.435837 -0.757699
1.495250 0.426581 -0.758382
1.463020 0.417356 -0.758536
1.422340 0.405722 -0.753624
1.390380 0.396577 -0.752650
1.367030 0.389892 -0.755849
1.326840 0.378402 -0.749139
1.303690 0.371773 -0.751455
1.247120 0.355617 -0.733711
1.232590 0.351450 -0.740000
1.201480 0.342556 -0.735931
1.178780 0.336060 -0.736504
1.156160 0.329589 -0.736723
1.133630 0.323143 -0.736588
1.103080 0.314413 -0.730727
1.080780 0.308035 -0.729816
1.066600 0.303972 -0.734076
1.044460 0.297641 -0.732543
1.006570 0.286825 -0.719336
0.984746 0.280586 -0.716971
0.970867 0.276612 -0.720072
0.957011 0.272646 -0.722976
0.950912 0.270889 -0.731632
0.929379 0.264737 -0.728196
0.907977 0.258622 -0.724426
0.894288 0.254705 -0.726480
0.880635 0.250799 -0.728342
0.867019 0.246904 -0.730012
0.853442 0.243021 -0.731490
0.832539 0.237053 -0.726350
0.819102 0.233210 -0.727382
0.805712 0.229382 -0.728225
0.792370 0.225568 -0.728882
0.779079 0.221769 -0.729352
0.765841 0.217985 -0.729637
0.752657 0.214218 -0.729738
0.739531 0.210467 -0.729656
0.726464 0.206734 -0.729391
0.720318 0.204971 -0.735955
0.707316 0.201257 -0.735391
0.694379 0.197562 -0.734648
0.681508 0.193887 -0.733727
0.675327 0.192115 -0.739882
0.662535 0.188462 -0.738667
0.649815 0.184831 -0.737277
16.920400 4.754410 1.383230
16.777800 4.714050 1.218650
16.297400 4.578780 1.035380
16.257500 4.567280 0.885002
16.245100 4.563520 0.736732
16.173800 4.543200 0.586661
16.110800 4.525230 0.438203
15.998400 4.493380 0.290060
16.038800 4.504450 0.145385
15.981800 4.488130 0.000001
15.653900 4.395780 -0.141893
15.546300 4.365290 -0.281855
15.524200 4.358800 -0.422233
15.375800 4.316870 -0.557693
15.322500 4.301630 -0.694856
15.220000 4.272590 -0.828477
14.703200 4.127250 -0.934042
14.406700 4.043780 -1.046350
12.353000 3.467110 -1.009770
11.078000 3.109070 -1.006650
10.034200 2.815930 -1.003500
9.106160 2.555340 -0.994065
8.160010 2.289690 -0.965623
7.454010 2.091460 -0.950580
6.873020 1.928320 -0.939788
6.321420 1.773450 -0.922717
5.856370 1.642880 -0.909028
5.468150 1.533870 -0.899498
5.071050 1.422400 -0.881354
4.731600 1.327100 -0.866504
4.440150 1.245270 -0.854684
4.187070 1.174220 -0.845284
4.010000 1.124490 -0.847313
3.842630 1.077490 -0.848279
3.590970 1.006860 -0.826799
3.424410 0.960099 -0.821071
3.276950 0.918700 -0.817059
3.139180 0.880019 -0.812857
3.001730 0.841435 -0.806223
2.883250 0.808171 -0.802339
2.774340 0.777597 -0.799043
2.647210 0.741916 -0.788323
2.575870 0.721877 -0.792403
2.504660 0.701878 -0.795251
2.424430 0.679352 -0.793863
2.362730 0.662021 -0.797264
2.292030 0.642171 -0.796435
2.212420 0.619828 -0.791130
2.133090 0.597564 -0.784446
2.063080 0.577917 -0.779806
1.993330 0.558340 -0.773958
1.941810 0.543875 -0.774075
1.863560 0.521927 -0.762322
1.821380 0.510081 -0.764197
1.788210 0.500759 -0.769194
1.737360 0.486490 -0.765833
1.695540 0.474751 -0.765598
1.653870 0.463052 -0.764665
1.612330 0.451395 -0.763035
1.570960 0.439783 -0.760713
1.521050 0.425786 -0.753394
1.488710 0.416705 -0.753998
1.447850 0.405243 -0.749612
1.424340 0.398638 -0.753624
1.392330 0.389655 -0.752650
1.368950 0.383089 -0.755849
1.320240 0.369433 -0.744368
1.297100 0.362934 -0.746607
1.257250 0.351763 -0.738635
1.242660 0.347659 -0.745000
1.203170 0.336589 -0.735931
1.180430 0.330208 -0.736504
1.165990 0.326148 -0.741948
1.127050 0.315235 -0.731288
1.104620 0.308943 -0.730727
1.090370 0.304937 -0.735263
1.060060 0.296442 -0.728557
1.037930 0.290236 -0.726951
1.007980 0.281842 -0.719336
0.986121 0.275713 -0.716971
0.972222 0.271810 -0.720072
0.958347 0.267914 -0.722976
0.944497 0.264025 -0.725684
0.930674 0.260145 -0.728196
0.916883 0.256273 -0.730514
0.895534 0.250291 -0.726480
0.881861 0.246454 -0.728342
0.860740 0.240536 -0.723718
0.847198 0.236736 -0.725129
0.833697 0.232949 -0.726350
0.820241 0.229175 -0.727382
0.806831 0.225414 -0.728225
0.800683 0.223682 -0.735508
0.773002 0.215935 -0.722661
0.766903 0.214218 -0.729637
0.753701 0.210517 -0.729738
0.740556 0.206832 -0.729656
0.727470 0.203165 -0.729391
0.721315 0.201433 -0.735955
0.708295 0.197785 -0.735391
0.695339 0.194155 -0.734648
0.689141 0.192412 -0.740920
0.669630 0.186953 -0.732628
0.656881 0.183382 -0.731354
16.816700 4.605870 1.372250
16.683400 4.569050 1.209580
16.317600 4.468580 1.034770
16.277600 4.457340 0.884479
16.313400 4.466860 0.738477
16.348000 4.476040 0.591896
16.275300 4.455850 0.441868
16.027700 4.387790 0.290060
16.048900 4.393310 0.145210
15.991700 4.377370 0.000001
15.730800 4.305670 -0.142329
15.584400 4.265320 -0.282030
15.571800 4.261620 -0.422757
15.384600 4.210110 -0.556995
15.369800 4.205780 -0.695728
15.247800 4.172130 -0.828477
14.691600 4.019670 -0.931600
14.423400 3.946060 -1.045650
12.394800 3.390840 -1.011340
11.127100 3.043840 -1.009260
10.023700 2.741820 -1.000630
9.132410 2.497860 -0.995110
8.194100 2.241080 -0.967887
7.477210 2.044880 -0.951799
6.885580 1.882960 -0.939788
6.352080 1.736950 -0.925501
5.857540 1.601620 -0.907549
5.478140 1.497780 -0.899498
5.099350 1.394130 -0.884655
4.730750 1.293270 -0.864768
4.429290 1.210780 -0.851040
4.204200 1.149180 -0.847192
4.017320 1.098030 -0.847313
3.849650 1.052130 -0.848279
3.597530 0.983160 -0.826799
3.430660 0.937497 -0.821071
3.282940 0.897071 -0.817059
3.144910 0.859300 -0.812857
3.007210 0.821623 -0.806223
2.888510 0.789141 -0.802339
2.770110 0.756746 -0.796370
2.670590 0.729510 -0.793835
2.580570 0.704876 -0.792403
2.509240 0.685347 -0.795251
2.428860 0.663350 -0.793863
2.367050 0.646427 -0.797264
2.305360 0.629542 -0.799608
2.198220 0.600245 -0.784619
2.146080 0.585968 -0.787784
2.066850 0.564300 -0.779806
2.006000 0.547651 -0.777460
1.936340 0.528600 -0.770491
1.884910 0.514527 -0.769652
1.824700 0.498059 -0.764197
1.791470 0.488957 -0.769194
1.740530 0.475024 -0.765833
1.689790 0.461146 -0.761611
1.656880 0.452136 -0.764665
1.624050 0.443149 -0.767182
1.565080 0.427029 -0.756487
1.515120 0.413371 -0.749089
1.491420 0.406879 -0.753998
1.450490 0.395686 -0.749612
1.426940 0.389237 -0.753624
1.386310 0.378131 -0.748033
1.362930 0.371730 -0.751154
1.322650 0.360719 -0.744368
1.299460 0.354373 -0.746607
1.267940 0.345755 -0.743559
1.236570 0.337179 -0.740000
1.205360 0.328648 -0.735931
1.174320 0.320162 -0.731354
1.159890 0.316210 -0.736723
1.129110 0.307797 -0.731288
1.114770 0.303870 -0.736100
1.092360 0.297740 -0.735263
1.053950 0.287252 -0.723037
1.039820 0.283385 -0.726951
0.985961 0.268689 -0.702344
0.980015 0.267051 -0.711235
0.981848 0.267533 -0.725879
0.967898 0.263715 -0.728854
0.953973 0.259904 -0.731632
0.932370 0.254002 -0.728196
0.918553 0.250222 -0.730514
0.897165 0.244380 -0.726480
0.883467 0.240633 -0.728342
0.862308 0.234855 -0.723718
0.841295 0.229117 -0.718768
0.835215 0.227447 -0.726350
0.829071 0.225759 -0.733876
0.808300 0.220089 -0.728225
0.794915 0.216430 -0.728882
0.781580 0.212786 -0.729352
0.761185 0.207220 -0.722881
0.755072 0.205542 -0.729738
0.734904 0.200039 -0.722772
0.728794 0.198363 -0.729391
0.722628 0.196672 -0.735955
0.709583 0.193110 -0.735391
0.696604 0.189565 -0.734648
0.683692 0.186039 -0.733727
0.670849 0.182533 -0.732628
0.658076 0.179046 -0.731354
0.645666 0.175647 -0.743145
16.845700 4.498980 1.372250
16.644600 4.445000 1.204700
16.345600 4.364860 1.034770
16.305600 4.353880 0.884479
16.331800 4.360590 0.738041
16.414700 4.382440 0.593292
16.380500 4.373030 0.443962
16.200200 4.324590 0.292678
16.385600 4.373820 0.148003
16.009500 4.273150 0.000001
15.844700 4.228890 -0.143114
15.611200 4.166270 -0.282030
15.762800 4.206460 -0.427207
15.488300 4.132930 -0.559787
15.444400 4.120960 -0.697909
15.167900 4.046900 -0.822720
14.697500 3.921150 -0.930379
14.496400 3.867240 -1.049140
12.425700 3.314630 -1.012120
11.127000 2.967980 -1.007520
10.108200 2.696070 -1.007340
9.138480 2.437250 -0.994065
8.246570 2.199230 -0.972415
7.518820 2.005020 -0.955455
6.830350 1.821310 -0.930651
6.334280 1.688920 -0.921326
5.886710 1.569480 -0.910506
5.497090 1.465510 -0.901062
5.098570 1.359180 -0.883004
4.767420 1.270810 -0.869977
4.436890 1.182630 -0.851040
4.211410 1.122450 -0.847192
4.024220 1.072490 -0.847313
3.846810 1.025140 -0.846200
3.632000 0.967835 -0.833292
3.436550 0.915692 -0.821071
3.297960 0.878708 -0.819393
3.140930 0.836813 -0.810438
3.012370 0.802509 -0.806223
2.884130 0.768295 -0.799751
2.765550 0.736659 -0.793698
2.675170 0.712536 -0.793835
2.585000 0.688473 -0.792403
2.513540 0.669398 -0.795251
2.442240 0.650366 -0.796870
2.371100 0.631382 -0.797264
2.309320 0.614888 -0.799608
2.201990 0.586273 -0.784619
2.140640 0.569902 -0.784446
2.070390 0.551163 -0.779806
2.018490 0.537310 -0.780962
1.939660 0.516293 -0.770491
1.879150 0.500153 -0.765987
1.836790 0.488846 -0.767943
1.794540 0.477570 -0.769194
1.743510 0.463961 -0.765833
1.701550 0.452763 -0.765598
1.659720 0.441605 -0.764665
1.626840 0.432826 -0.767182
1.567760 0.417081 -0.756487
1.526440 0.406061 -0.753394
1.485290 0.395089 -0.749615
1.452970 0.386467 -0.749612
1.437990 0.382457 -0.758164
1.397260 0.371599 -0.752650
1.365270 0.363067 -0.751154
1.324910 0.352313 -0.744368
1.301690 0.346113 -0.746607
1.278520 0.339932 -0.748484
1.247060 0.331545 -0.745000
1.207420 0.320986 -0.735931
1.184610 0.314900 -0.736504
1.170120 0.311028 -0.741948
1.139230 0.302798 -0.736588
1.116680 0.296784 -0.736100
1.086120 0.288643 -0.729816
1.063810 0.282695 -0.728557
1.041600 0.276776 -0.726951
1.011540 0.268771 -0.719336
0.989608 0.262925 -0.716971
0.975659 0.259202 -0.720072
0.969553 0.257563 -0.728854
0.947835 0.251777 -0.725684
0.933964 0.248076 -0.728196
0.920123 0.244383 -0.730514
0.898699 0.238677 -0.726480
0.884977 0.235018 -0.728342
0.863782 0.229374 -0.723718
0.842733 0.223770 -0.718768
0.836642 0.222138 -0.726350
0.830488 0.220489 -0.733876
0.809681 0.214951 -0.728225
0.789034 0.209456 -0.722256
0.775733 0.205911 -0.722661
0.755359 0.200490 -0.716126
0.756362 0.200743 -0.729738
0.743171 0.197229 -0.729656
0.736992 0.195576 -0.736338
0.723862 0.192079 -0.735955
0.710796 0.188600 -0.735391
0.697794 0.185138 -0.734648
0.684860 0.181694 -0.733727
0.671994 0.178269 -0.732628
0.659200 0.174863 -0.731354
17.097800 4.481290 1.391080
16.800200 4.402980 1.214460
16.423700 4.304020 1.038440
16.344900 4.283100 0.885525
16.351900 4.284630 0.738041
16.386500 4.293430 0.591547
16.381300 4.291770 0.443438
16.365200 4.287250 0.295296
16.251000 4.257070 0.146607
16.077600 4.211350 0.000001
15.961000 4.180530 -0.143987
15.852800 4.151920 -0.286044
15.888500 4.161000 -0.430086
15.565300 4.076090 -0.561881
15.521400 4.064310 -0.700526
15.370100 4.024410 -0.832664
14.889400 3.898290 -0.941368
14.601100 3.822550 -1.055410
12.498900 3.271980 -1.016830
11.179200 2.926320 -1.011010
10.082100 2.638970 -1.003500
9.159330 2.397270 -0.995110
8.247090 2.158360 -0.971283
7.556860 1.977590 -0.959111
6.857920 1.794560 -0.933262
6.399540 1.674500 -0.929676
5.903510 1.544610 -0.911984
5.542060 1.449940 -0.907320
5.123920 1.340450 -0.886305
4.792330 1.253620 -0.873450
4.442340 1.161990 -0.851040
4.226080 1.105350 -0.849100
4.038640 1.056250 -0.849307
3.870460 1.012200 -0.850359
3.645900 0.953412 -0.835457
3.440770 0.899708 -0.821071
3.292610 0.860909 -0.817059
3.154170 0.824658 -0.812857
3.025440 0.790947 -0.808727
2.887670 0.754881 -0.799751
2.768950 0.723795 -0.793698
2.687750 0.702524 -0.796592
2.588170 0.676450 -0.792403
2.525880 0.660125 -0.798175
2.445230 0.639007 -0.796870
2.383210 0.622758 -0.800354
2.312150 0.604147 -0.799608
2.222990 0.580811 -0.791130
2.143270 0.559946 -0.784446
2.082020 0.543908 -0.783226
2.020960 0.527922 -0.780962
1.951070 0.509630 -0.774075
1.890460 0.493764 -0.769652
1.848010 0.482646 -0.771689
1.787800 0.466889 -0.765367
1.754560 0.458177 -0.769740
1.703630 0.444849 -0.765598
1.670590 0.436193 -0.768732
1.620020 0.422961 -0.763035
1.587220 0.414368 -0.764939
1.545770 0.403521 -0.762005
1.495810 0.390451 -0.753998
1.463410 0.381969 -0.754074
1.422510 0.371268 -0.749084
1.398970 0.365101 -0.752650
1.358390 0.354487 -0.746460
1.335040 0.348369 -0.749139
1.303280 0.340059 -0.746607
1.280090 0.333985 -0.748484
1.240210 0.323558 -0.740000
1.217240 0.317545 -0.741006
1.186060 0.309391 -0.736504
1.163300 0.303433 -0.736723
1.140630 0.297499 -0.736588
1.118050 0.291591 -0.736100
1.095560 0.285707 -0.735263
1.065110 0.277747 -0.728557
1.042880 0.271931 -0.726951
1.012780 0.264066 -0.719336
0.998746 0.260389 -0.722706
0.984731 0.256718 -0.725879
0.970740 0.253053 -0.728854
0.948995 0.247368 -0.725684
0.935107 0.243732 -0.728196
0.921249 0.240104 -0.730514
0.907424 0.236485 -0.732637
0.886060 0.230902 -0.728342
0.872359 0.227316 -0.730012
0.843764 0.219850 -0.718768
0.845079 0.220178 -0.732778
0.838862 0.218543 -0.740371
0.803368 0.209282 -0.721665
0.789999 0.205786 -0.722256
0.769490 0.200430 -0.715970
0.763418 0.198835 -0.722881
0.750210 0.195382 -0.722918
0.744080 0.193772 -0.729656
0.730931 0.190336 -0.729391
0.731649 0.190510 -0.742964
0.711664 0.185294 -0.735391
0.698647 0.181892 -0.734648
0.685697 0.178508 -0.733727
0.672816 0.175143 -0.732628
0.660006 0.171797 -0.731354
16.964500 4.325450 1.224230
16.529400 4.214180 1.043320
16.382800 4.176490 0.886049
16.409100 4.182870 0.739349
16.405100 4.181530 0.591198
16.399900 4.179880 0.443177
16.451600 4.192710 0.296343
16.230600 4.136090 0.146170
16.066600 4.093970 0.000001
16.095100 4.100920 -0.144947
16.015900 4.080410 -0.288487
16.003200 4.076870 -0.432442
15.592300 3.971870 -0.561881
15.674100 3.992410 -0.706197
15.522500 3.953480 -0.839468
14.934500 3.803430 -0.942589
14.510300 3.695120 -1.047040
12.530200 3.190620 -1.017610
11.150300 2.839030 -1.006650
10.109300 2.573770 -1.004460
9.165560 2.333330 -0.994065
8.290270 2.110330 -0.974679
7.541110 1.919480 -0.955455
6.917850 1.760710 -0.939788
6.391450 1.626600 -0.926892
5.932920 1.509790 -0.914940
5.542110 1.410230 -0.905755
5.132810 1.305980 -0.886305
4.791110 1.218940 -0.871714
4.459590 1.134510 -0.852862
4.233420 1.076890 -0.849100
4.055150 1.031460 -0.851301
3.858230 0.981294 -0.846200
3.661710 0.931239 -0.837621
3.446750 0.876504 -0.821071
3.298330 0.838697 -0.817059
3.159660 0.803373 -0.812857
3.021320 0.768138 -0.806223
2.883340 0.733001 -0.797162
2.773770 0.705092 -0.793698
2.692430 0.684363 -0.796592
2.601970 0.661318 -0.795243
2.521010 0.640691 -0.795251
2.449500 0.622468 -0.796870
2.378150 0.604291 -0.797264
2.306990 0.586163 -0.796435
2.226860 0.565761 -0.791130
2.156150 0.547751 -0.787784
2.076550 0.527489 -0.779806
2.024490 0.514226 -0.780962
1.954480 0.496404 -0.774075
1.902780 0.483235 -0.773317
1.842250 0.467828 -0.767943
1.799880 0.457031 -0.769194
1.748700 0.444002 -0.765833
1.706610 0.433281 -0.765598
1.673520 0.424846 -0.768732
1.631680 0.414192 -0.767182
1.590000 0.403580 -0.764939
1.557230 0.395232 -0.766310
1.507140 0.382489 -0.758382
1.474650 0.374214 -0.758536
1.425000 0.361588 -0.749084
1.392820 0.353395 -0.748033
1.352220 0.343066 -0.741765
1.328860 0.337114 -0.744368
1.305560 0.331178 -0.746607
1.273900 0.323120 -0.743559
1.242380 0.315101 -0.740000
1.211020 0.307125 -0.735931
1.188140 0.301298 -0.736504
1.165340 0.295493 -0.736723
1.142630 0.289712 -0.736588
1.120010 0.283955 -0.736100
1.097490 0.278223 -0.735263
1.058900 0.268419 -0.723037
1.044710 0.264802 -0.726951
1.014560 0.257140 -0.719336
0.992562 0.251544 -0.716971
0.986464 0.249979 -0.725879
0.972448 0.246409 -0.728854
0.942873 0.238896 -0.719735
0.936753 0.237327 -0.728196
0.907490 0.229895 -0.718338
0.909022 0.230265 -0.732637
0.887621 0.224827 -0.728342
0.866363 0.219425 -0.723718
0.852731 0.215956 -0.725129
0.846569 0.214378 -0.732778
0.832970 0.210918 -0.733876
0.804785 0.203766 -0.721665
0.784132 0.198521 -0.715630
0.778052 0.196966 -0.722661
0.764765 0.193588 -0.722881
0.758624 0.192018 -0.729738
0.752426 0.190434 -0.736539
0.732223 0.185306 -0.729391
0.732942 0.185474 -0.742964
0.712922 0.180394 -0.735391
0.699882 0.177080 -0.734648
0.686909 0.173785 -0.733727
0.674006 0.170507 -0.732628
0.661173 0.167247 -0.731354
16.940500 4.216490 1.220740
16.814700 4.184810 1.059800
16.503300 4.106960 0.891282
16.578200 4.125240 0.745892
16.409400 4.082880 0.590500
16.394400 4.078820 0.442391
16.281200 4.050300 0.292852
16.234600 4.038360 0.145996
16.109200 4.006810 0.000001
16.031000 3.987020 -0.144161
16.174800 4.022440 -0.290931
16.084500 3.999640 -0.434013
15.643800 3.889730 -0.562928
15.628900 3.885670 -0.703144
15.583600 3.874090 -0.841561
14.035800 3.489010 -0.884593
13.989100 3.477100 -1.007980
12.674000 3.149950 -1.027810
11.205100 2.784620 -1.010130
10.191500 2.532510 -1.011170
9.246370 2.297460 -1.001380
8.350460 2.074670 -0.980339
7.600170 1.888100 -0.961549
6.995210 1.737660 -0.948925
6.439140 1.599390 -0.932459
5.989490 1.487580 -0.922330
5.588470 1.387860 -0.912013
5.168960 1.283560 -0.891257
4.798040 1.191350 -0.871714
4.485130 1.113560 -0.856507
4.230020 1.050130 -0.847192
4.061030 1.008090 -0.851301
3.854320 0.956699 -0.844121
3.676490 0.912479 -0.839785
3.480110 0.863667 -0.827820
3.321990 0.824353 -0.821727
3.173660 0.787477 -0.815277
3.035100 0.753031 -0.808727
2.887520 0.716354 -0.797162
2.787140 0.691393 -0.796370
2.687010 0.666495 -0.793835
2.596440 0.643974 -0.792403
2.524670 0.626120 -0.795251
2.453050 0.608306 -0.796870
2.381600 0.590537 -0.797264
2.319540 0.575100 -0.799608
2.230100 0.552875 -0.791130
2.159280 0.535271 -0.787784
2.088690 0.517728 -0.783226
2.036530 0.504755 -0.784464
1.966380 0.487328 -0.777658
1.905540 0.472209 -0.773317
1.853930 0.459380 -0.771689
1.802500 0.446596 -0.769194
1.751250 0.433861 -0.765833
1.700190 0.421176 -0.761611
1.675950 0.415135 -0.768732
1.634050 0.404722 -0.767182
1.601110 0.396528 -0.769165
1.559500 0.386189 -0.766310
1.518060 0.375894 -0.762766
1.485480 0.367797 -0.762998
1.427080 0.353305 -0.749084
1.403460 0.347429 -0.752650
1.354190 0.335202 -0.741765
1.322270 0.327272 -0.739596
1.298980 0.321480 -0.741759
1.275750 0.315706 -0.743559
1.261010 0.312029 -0.750000
1.221160 0.302142 -0.741006
1.189880 0.294377 -0.736504
1.167040 0.288703 -0.736723
1.152530 0.285089 -0.741887
1.113460 0.275400 -0.730727
1.090950 0.269809 -0.729816
1.060450 0.262243 -0.723037
1.038190 0.256717 -0.721359
1.016040 0.251219 -0.719336
1.009920 0.249682 -0.728442
0.995809 0.246173 -0.731686
0.973870 0.240729 -0.728854
0.959859 0.237245 -0.731632
0.930370 0.229936 -0.722178
0.916519 0.226493 -0.724426
0.902702 0.223060 -0.726480
0.896517 0.221512 -0.734567
0.882720 0.218084 -0.736305
0.853980 0.210965 -0.725129
0.847808 0.209423 -0.732778
0.834190 0.206041 -0.733876
0.805964 0.199052 -0.721665
0.778010 0.192131 -0.709003
0.779192 0.192407 -0.722661
0.765886 0.189105 -0.722881
0.759736 0.187570 -0.729738
0.753529 0.186021 -0.736539
0.740280 0.182735 -0.736338
0.734017 0.181173 -0.742964
0.713968 0.176209 -0.735391
0.700909 0.172971 -0.734648
0.687917 0.169750 -0.733727
0.674995 0.166547 -0.732628
0.662144 0.163362 -0.731354
0.253868 0.062330 -0.975585
17.195800 4.138490 1.236780
17.011700 4.093810 1.070180
16.641500 4.004380 0.897039
16.609700 3.996370 0.745892
16.450300 3.957670 0.590849
16.415900 3.949040 0.442130
16.263600 3.912050 0.291980
16.236300 3.905150 0.145734
16.188400 3.893280 0.000001
15.983700 3.843710 -0.143463
15.904200 3.824250 -0.285520
15.920700 3.827870 -0.428777
15.693000 3.772800 -0.563626
15.629400 3.757180 -0.701835
15.545300 3.736620 -0.837898
13.965400 3.356580 -0.878488
13.918700 3.345050 -1.001000
12.736900 3.060750 -1.030950
11.187600 2.688210 -1.006650
10.191500 2.448640 -1.009260
9.292940 2.232560 -1.004520
8.433950 2.026010 -0.988263
7.633910 1.833660 -0.963986
7.037410 1.690230 -0.952841
6.509130 1.563210 -0.940810
6.010480 1.443330 -0.923808
5.618290 1.349030 -0.915141
5.207540 1.250290 -0.896208
4.835880 1.160960 -0.876923
4.512760 1.083290 -0.860151
4.266680 1.024130 -0.852916
4.087790 0.981100 -0.855288
3.852120 0.924456 -0.842042
3.683460 0.883901 -0.839785
3.505670 0.841162 -0.832319
3.337740 0.800799 -0.824062
3.179680 0.762808 -0.815277
3.050270 0.731697 -0.811231
2.921170 0.700668 -0.804927
2.811170 0.674223 -0.801715
2.701450 0.647850 -0.796592
2.620010 0.628263 -0.798083
2.529450 0.606495 -0.795251
2.466980 0.591462 -0.799877
2.386120 0.572025 -0.797264
2.314720 0.554859 -0.796435
2.234320 0.535540 -0.791130
2.163370 0.518487 -0.787784
2.110920 0.505872 -0.790066
2.049490 0.491107 -0.787966
1.979190 0.474218 -0.781242
1.918200 0.459565 -0.776982
1.857440 0.444969 -0.771689
1.805910 0.432585 -0.769194
1.763510 0.422392 -0.769740
1.712330 0.410096 -0.765598
1.679120 0.402108 -0.768732
1.637150 0.392020 -0.767182
1.604140 0.384082 -0.769165
1.562450 0.374067 -0.766310
1.529670 0.366187 -0.767149
1.479590 0.354167 -0.758536
1.447110 0.346361 -0.758164
1.406120 0.336520 -0.752650
1.373920 0.328786 -0.751154
1.333320 0.319039 -0.744368
1.301440 0.311383 -0.741759
1.278170 0.305789 -0.743559
1.254970 0.300212 -0.745000
1.223460 0.292650 -0.741006
1.192130 0.285128 -0.736504
1.177540 0.281615 -0.741948
1.146460 0.274158 -0.736588
1.115560 0.266745 -0.730727
1.101170 0.263280 -0.735263
1.054340 0.252061 -0.717518
1.040150 0.248647 -0.721359
1.025980 0.245237 -0.725000
1.011820 0.241832 -0.728442
0.997690 0.238432 -0.731686
0.983578 0.235039 -0.734731
0.961673 0.229784 -0.731632
0.939895 0.224560 -0.728196
0.925967 0.221213 -0.730514
0.912071 0.217874 -0.732637
0.898210 0.214543 -0.734567
0.869269 0.207612 -0.723718
0.848087 0.202535 -0.718768
0.849409 0.202833 -0.732778
0.828369 0.197791 -0.727382
0.800145 0.191035 -0.715104
0.786763 0.187823 -0.715630
0.780663 0.186350 -0.722661
0.767332 0.183151 -0.722881
0.754057 0.179967 -0.722918
0.754951 0.180164 -0.736539
0.748674 0.178650 -0.743284
0.735402 0.175468 -0.742964
0.715315 0.170659 -0.735391
0.688596 0.164270 -0.720383
0.695972 0.166015 -0.740920
0.676268 0.161300 -0.732628
0.663393 0.158215 -0.731354
17.364600 4.031410 1.246550
17.034400 3.954370 1.069570
16.673200 3.870180 0.897039
16.651100 3.864690 0.746329
16.540100 3.838570 0.592943
16.466700 3.821180 0.442653
16.304300 3.783160 0.292154
16.286700 3.778740 0.145909
16.229000 3.765000 0.000001
15.965500 3.703520 -0.143027
15.885800 3.684700 -0.284648
15.931500 3.694970 -0.428254
15.742400 3.650760 -0.564324
